1.89999998 10.00000000 1.00000000 32 100 248
2.00000000 10.00000000 1.00000000 17 127 237
2.09999990 10.00000000 1.00000000 6 154 222
2.20000005 10.00000000 1.00000000 0 179 202
2.29999995 10.00000000 1.00000000 0 202 179
2.40000010 10.00000000 1.00000000 6 222 154
2.50000000 10.00000000 1.00000000 17 237 127
2.59999990 10.00000000 1.00000000 32 248 100
0.10000000 10.00000000 1.10000002 154 222 6
0.20000000 10.00000000 1.10000002 179 202 0
0.30000001 10.00000000 1.10000002 202 179 0
0.40000001 10.00000000 1.10000002 222 154 6
0.50000000 10.00000000 1.10000002 237 127 17
0.60000002 10.00000000 1.10000002 248 100 32
0.69999999 10.00000000 1.10000002 254 75 52
0.80000001 10.00000000 1.10000002 254 52 75
0.89999998 10.00000000 1.10000002 248 32 100
1.00000000 10.00000000 1.10000002 237 17 127
1.10000002 10.00000000 1.10000002 222 6 154
1.20000005 10.00000000 1.10000002 202 0 179
1.29999995 10.00000000 1.10000002 179 0 202
1.39999998 10.00000000 1.10000002 154 6 222
1.50000000 10.00000000 1.10000002 127 17 237
1.60000002 10.00000000 1.10000002 100 32 248
1.70000005 10.00000000 1.10000002 75 52 254
1.79999995 10.00000000 1.10000002 52 75 254
1.89999998 10.00000000 1.10000002 32 100 248
2.00000000 10.00000000 1.10000002 17 127 237
2.09999990 10.00000000 1.10000002 6 154 222
2.20000005 10.00000000 1.10000002 0 179 202
2.29999995 10.00000000 1.10000002 0 202 179
2.40000010 10.00000000 1.10000002 6 222 154
2.50000000 10.00000000 1.10000002 17 237 127
2.59999990 10.00000000 1.10000002 32 248 100
0.10000000 10.00000000 1.20000005 154 222 6
0.20000000 10.00000000 1.20000005 179 202 0
0.30000001 10.00000000 1.20000005 202 179 0
0.40000001 10.00000000 1.20000005 222 154 6
0.50000000 10.00000000 1.20000005 237 127 17
0.60000002 10.00000000 1.20000005 248 100 32
0.69999999 10.00000000 1.20000005 254 75 52
0.80000001 10.00000000 1.20000005 254 52 75
0.89999998 10.00000000 1.20000005 248 32 100
1.00000000 10.00000000 1.20000005 237 17 127
1.10000002 10.00000000 1.20000005 222 6 154
1.20000005 10.00000000 1.20000005 202 0 179
1.29999995 10.00000000 1.20000005 179 0 202
1.39999998 10.00000000 1.20000005 154 6 222
1.50000000 10.00000000 1.20000005 127 17 237
1.60000002 10.00000000 1.20000005 100 32 248
1.70000005 10.00000000 1.20000005 75 52 254
1.79999995 10.00000000 1.20000005 52 75 254
1.89999998 10.00000000 1.20000005 32 100 248
2.00000000 10.00000000 1.20000005 17 127 237
2.09999990 10.00000000 1.20000005 6 154 222
2.20000005 10.00000000 1.20000005 0 179 202
2.29999995 10.00000000 1.20000005 0 202 179
2.40000010 10.00000000 1.20000005 6 222 154
2.50000000 10.00000000 1.20000005 17 237 127
2.59999990 10.00000000 1.20000005 32 248 100
0.10000000 10.00000000 1.29999995 154 222 6
0.20000000 10.00000000 1.29999995 179 202 0
0.30000001 10.00000000 1.29999995 202 179 0
0.40000001 10.00000000 1.29999995 222 154 6
0.50000000 10.00000000 1.29999995 237 127 17
0.60000002 10.00000000 1.29999995 248 100 32
0.69999999 10.00000000 1.29999995 254 75 52
0.80000001 10.00000000 1.29999995 254 52 75
0.89999998 10.00000000 1.29999995 248 32 100
1.00000000 10.00000000 1.29999995 237 17 127
1.10000002 10.00000000 1.29999995 222 6 154
1.20000005 10.00000000 1.29999995 202 0 179
1.29999995 10.00000000 1.29999995 179 0 202
1.39999998 10.00000000 1.29999995 154 6 222
1.50000000 10.00000000 1.29999995 127 17 237
1.60000002 10.00000000 1.29999995 100 32 248
1.70000005 10.00000000 1.29999995 75 52 254
1.79999995 10.00000000 1.29999995 52 75 254
1.89999998 10.00000000 1.29999995 32 100 248
2.00000000 10.00000000 1.29999995 17 127 237
2.09999990 10.00000000 1.29999995 6 154 222
2.20000005 10.00000000 1.29999995 0 179 202
2.29999995 10.00000000 1.29999995 0 202 179
2.40000010 10.00000000 1.29999995 6 222 154
2.50000000 10.00000000 1.29999995 17 237 127
2.59999990 10.00000000 1.29999995 32 248 100
0.10000000 10.00000000 1.39999998 154 222 6
0.20000000 10.00000000 1.39999998 179 202 0
0.30000001 10.00000000 1.39999998 202 179 0
0.40000001 10.00000000 1.39999998 222 154 6
0.50000000 10.00000000 1.39999998 237 127 17
0.60000002 10.00000000 1.39999998 248 100 32
0.69999999 10.00000000 1.39999998 254 75 52
0.80000001 10.00000000 1.39999998 254 52 75
0.89999998 10.00000000 1.39999998 248 32 100
1.00000000 10.00000000 1.39999998 237 17 127
1.10000002 10.00000000 1.39999998 222 6 154
1.20000005 10.00000000 1.39999998 202 0 179
1.29999995 10.00000000 1.39999998 179 0 202
1.39999998 10.00000000 1.39999998 154 6 222
1.50000000 10.00000000 1.39999998 127 17 237
1.60000002 10.00000000 1.39999998 100 32 248
1.70000005 10.00000000 1.39999998 75 52 254
1.79999995 10.00000000 1.39999998 52 75 254
1.89999998 10.00000000 1.39999998 32 100 248
2.00000000 10.00000000 1.39999998 17 127 237
2.09999990 10.00000000 1.39999998 6 154 222
2.20000005 10.00000000 1.39999998 0 179 202
2.29999995 10.00000000 1.39999998 0 202 179
2.40000010 10.00000000 1.39999998 6 222 154
2.50000000 10.00000000 1.39999998 17 237 127
2.59999990 10.00000000 1.39999998 32 248 100
0.10000000 10.00000000 1.50000000 154 222 6
0.20000000 10.00000000 1.50000000 179 202 0
0.30000001 10.00000000 1.50000000 202 179 0
0.40000001 10.00000000 1.50000000 222 154 6
0.50000000 10.00000000 1.50000000 237 127 17
0.60000002 10.00000000 1.50000000 248 100 32
0.69999999 10.00000000 1.50000000 254 75 52
0.80000001 10.00000000 1.50000000 254 52 75
0.89999998 10.00000000 1.50000000 248 32 100
1.00000000 10.00000000 1.50000000 237 17 127
1.10000002 10.00000000 1.50000000 222 6 154
1.20000005 10.00000000 1.50000000 202 0 179
1.29999995 10.00000000 1.50000000 179 0 202
1.39999998 10.00000000 1.50000000 154 6 222
1.50000000 10.00000000 1.50000000 127 17 237
1.60000002 10.00000000 1.50000000 100 32 248
1.70000005 10.00000000 1.50000000 75 52 254
1.79999995 10.00000000 1.50000000 52 75 254
1.89999998 10.00000000 1.50000000 32 100 248
2.00000000 10.00000000 1.50000000 17 127 237
2.09999990 10.00000000 1.50000000 6 154 222
2.20000005 10.00000000 1.50000000 0 179 202
2.29999995 10.00000000 1.50000000 0 202 179
2.40000010 10.00000000 1.50000000 6 222 154
2.50000000 10.00000000 1.50000000 17 237 127
2.59999990 10.00000000 1.50000000 32 248 100
0.10000000 10.00000000 1.60000002 154 222 6
0.20000000 10.00000000 1.60000002 179 202 0
0.30000001 10.00000000 1.60000002 202 179 0
0.40000001 10.00000000 1.60000002 222 154 6
0.50000000 10.00000000 1.60000002 237 127 17
0.60000002 10.00000000 1.60000002 248 100 32
0.69999999 10.00000000 1.60000002 254 75 52
0.80000001 10.00000000 1.60000002 254 52 75
0.89999998 10.00000000 1.60000002 248 32 100
1.00000000 10.00000000 1.60000002 237 17 127
1.10000002 10.00000000 1.60000002 222 6 154
1.20000005 10.00000000 1.60000002 202 0 179
1.29999995 10.00000000 1.60000002 179 0 202
1.39999998 10.00000000 1.60000002 154 6 222
1.50000000 10.00000000 1.60000002 127 17 237
1.60000002 10.00000000 1.60000002 100 32 248
1.70000005 10.00000000 1.60000002 75 52 254
1.79999995 10.00000000 1.60000002 52 75 254
1.89999998 10.00000000 1.60000002 32 100 248
2.00000000 10.00000000 1.60000002 17 127 237
2.09999990 10.00000000 1.60000002 6 154 222
2.20000005 10.00000000 1.60000002 0 179 202
2.29999995 10.00000000 1.60000002 0 202 179
2.40000010 10.00000000 1.60000002 6 222 154
2.50000000 10.00000000 1.60000002 17 237 127
2.59999990 10.00000000 1.60000002 32 248 100
0.10000000 10.00000000 1.70000005 154 222 6
0.20000000 10.00000000 1.70000005 179 202 0
0.30000001 10.00000000 1.70000005 202 179 0
0.40000001 10.00000000 1.70000005 222 154 6
0.50000000 10.00000000 1.70000005 237 127 17
0.60000002 10.00000000 1.70000005 248 100 32
0.69999999 10.00000000 1.70000005 254 75 52
0.80000001 10.00000000 1.70000005 254 52 75
0.89999998 10.00000000 1.70000005 248 32 100
1.00000000 10.00000000 1.70000005 237 17 127
1.10000002 10.00000000 1.70000005 222 6 154
1.20000005 10.00000000 1.70000005 202 0 179
1.29999995 10.00000000 1.70000005 179 0 202
1.39999998 10.00000000 1.70000005 154 6 222
1.50000000 10.00000000 1.70000005 127 17 237
1.60000002 10.00000000 1.70000005 100 32 248
1.70000005 10.00000000 1.70000005 75 52 254
1.79999995 10.00000000 1.70000005 52 75 254
1.89999998 10.00000000 1.70000005 32 100 248
2.00000000 10.00000000 1.70000005 17 127 237
2.09999990 10.00000000 1.70000005 6 154 222
2.20000005 10.00000000 1.70000005 0 179 202
2.29999995 10.00000000 1.70000005 0 202 179
2.40000010 10.00000000 1.70000005 6 222 154
2.50000000 10.00000000 1.70000005 17 237 127
2.59999990 10.00000000 1.70000005 32 248 100
0.10000000 10.00000000 1.79999995 154 222 6
0.20000000 10.00000000 1.79999995 179 202 0
0.30000001 10.00000000 1.79999995 202 179 0
0.40000001 10.00000000 1.79999995 222 154 6
0.50000000 10.00000000 1.79999995 237 127 17
0.60000002 10.00000000 1.79999995 248 100 32
0.69999999 10.00000000 1.79999995 254 75 52
0.80000001 10.00000000 1.79999995 254 52 75
0.89999998 10.00000000 1.79999995 248 32 100
1.00000000 10.00000000 1.79999995 237 17 127
1.10000002 10.00000000 1.79999995 222 6 154
1.20000005 10.00000000 1.79999995 202 0 179
1.29999995 10.00000000 1.79999995 179 0 202
1.39999998 10.00000000 1.79999995 154 6 222
1.50000000 10.00000000 1.79999995 127 17 237
1.60000002 10.00000000 1.79999995 100 32 248
1.70000005 10.00000000 1.79999995 75 52 254
1.79999995 10.00000000 1.79999995 52 75 254
1.89999998 10.00000000 1.79999995 32 100 248
2.00000000 10.00000000 1.79999995 17 127 237
2.09999990 10.00000000 1.79999995 6 154 222
2.20000005 10.00000000 1.79999995 0 179 202
2.29999995 10.00000000 1.79999995 0 202 179
2.40000010 10.00000000 1.79999995 6 222 154
2.50000000 10.00000000 1.79999995 17 237 127
2.59999990 10.00000000 1.79999995 32 248 100
0.10000000 10.00000000 1.89999998 154 222 6
0.20000000 10.00000000 1.89999998 179 202 0
0.30000001 10.00000000 1.89999998 202 179 0
0.40000001 10.00000000 1.89999998 222 154 6
0.50000000 10.00000000 1.89999998 237 127 17
0.60000002 10.00000000 1.89999998 248 100 32
0.69999999 10.00000000 1.89999998 254 75 52
0.80000001 10.00000000 1.89999998 254 52 75
0.89999998 10.00000000 1.89999998 248 32 100
1.00000000 10.00000000 1.89999998 237 17 127
1.10000002 10.00000000 1.89999998 222 6 154
1.20000005 10.00000000 1.89999998 202 0 179
1.29999995 10.00000000 1.89999998 179 0 202
1.39999998 10.00000000 1.89999998 154 6 222
1.50000000 10.00000000 1.89999998 127 17 237
1.60000002 10.00000000 1.89999998 100 32 248
1.70000005 10.00000000 1.89999998 75 52 254
1.79999995 10.00000000 1.89999998 52 75 254
1.89999998 10.00000000 1.89999998 32 100 248
2.00000000 10.00000000 1.89999998 17 127 237
2.09999990 10.00000000 1.89999998 6 154 222
2.20000005 10.00000000 1.89999998 0 179 202
2.29999995 10.00000000 1.89999998 0 202 179
2.40000010 10.00000000 1.89999998 6 222 154
2.50000000 10.00000000 1.89999998 17 237 127
2.59999990 10.00000000 1.89999998 32 248 100
0.10000000 10.00000000 2.00000000 154 222 6
0.20000000 10.00000000 2.00000000 179 202 0
0.30000001 10.00000000 2.00000000 202 179 0
0.40000001 10.00000000 2.00000000 222 154 6
0.50000000 10.00000000 2.00000000 237 127 17
0.60000002 10.00000000 2.00000000 248 100 32
0.69999999 10.00000000 2.00000000 254 75 52
0.80000001 10.00000000 2.00000000 254 52 75
0.89999998 10.00000000 2.00000000 248 32 100
1.00000000 10.00000000 2.00000000 237 17 127
1.10000002 10.00000000 2.00000000 222 6 154
1.20000005 10.00000000 2.00000000 202 0 179
1.29999995 10.00000000 2.00000000 179 0 202
1.39999998 10.00000000 2.00000000 154 6 222
1.50000000 10.00000000 2.00000000 127 17 237
1.60000002 10.00000000 2.00000000 100 32 248
1.70000005 10.00000000 2.00000000 75 52 254
1.79999995 10.00000000 2.00000000 52 75 254
1.89999998 10.00000000 2.00000000 32 100 248
2.00000000 10.00000000 2.00000000 17 127 237
2.09999990 10.00000000 2.00000000 6 154 222
2.20000005 10.00000000 2.00000000 0 179 202
2.29999995 10.00000000 2.00000000 0 202 179
2.40000010 10.00000000 2.00000000 6 222 154
2.50000000 10.00000000 2.00000000 17 237 127
2.59999990 10.00000000 2.00000000 32 248 100
0.10000000 10.00000000 2.09999990 154 222 6
0.20000000 10.00000000 2.09999990 179 202 0
0.30000001 10.00000000 2.09999990 202 179 0
0.40000001 10.00000000 2.09999990 222 154 6
0.50000000 10.00000000 2.09999990 237 127 17
0.60000002 10.00000000 2.09999990 248 100 32
0.69999999 10.00000000 2.09999990 254 75 52
0.80000001 10.00000000 2.09999990 254 52 75
0.89999998 10.00000000 2.09999990 248 32 100
1.00000000 10.00000000 2.09999990 237 17 127
1.10000002 10.00000000 2.09999990 222 6 154
1.20000005 10.00000000 2.09999990 202 0 179
1.29999995 10.00000000 2.09999990 179 0 202
1.39999998 10.00000000 2.09999990 154 6 222
1.50000000 10.00000000 2.09999990 127 17 237
1.60000002 10.00000000 2.09999990 100 32 248
1.70000005 10.00000000 2.09999990 75 52 254
1.79999995 10.00000000 2.09999990 52 75 254
1.89999998 10.00000000 2.09999990 32 100 248
2.00000000 10.00000000 2.09999990 17 127 237
2.09999990 10.00000000 2.09999990 6 154 222
2.20000005 10.00000000 2.09999990 0 179 202
2.29999995 10.00000000 2.09999990 0 202 179
2.40000010 10.00000000 2.09999990 6 222 154
2.50000000 10.00000000 2.09999990 17 237 127
2.59999990 10.00000000 2.09999990 32 248 100
0.10000000 10.00000000 2.20000005 154 222 6
0.20000000 10.00000000 2.20000005 179 202 0
0.30000001 10.00000000 2.20000005 202 179 0
0.40000001 10.00000000 2.20000005 222 154 6
0.50000000 10.00000000 2.20000005 237 127 17
0.60000002 10.00000000 2.20000005 248 100 32
0.69999999 10.00000000 2.20000005 254 75 52
0.80000001 10.00000000 2.20000005 254 52 75
0.89999998 10.00000000 2.20000005 248 32 100
1.00000000 10.00000000 2.20000005 237 17 127
1.10000002 10.00000000 2.20000005 222 6 154
1.20000005 10.00000000 2.20000005 202 0 179
1.29999995 10.00000000 2.20000005 179 0 202
1.39999998 10.00000000 2.20000005 154 6 222
1.50000000 10.00000000 2.20000005 127 17 237
1.60000002 10.00000000 2.20000005 100 32 248
1.70000005 10.00000000 2.20000005 75 52 254
1.79999995 10.00000000 2.20000005 52 75 254
1.89999998 10.00000000 2.20000005 32 100 248
2.00000000 10.00000000 2.20000005 17 127 237
2.09999990 10.00000000 2.20000005 6 154 222
2.20000005 10.00000000 2.20000005 0 179 202
2.29999995 10.00000000 2.20000005 0 202 179
2.40000010 10.00000000 2.20000005 6 222 154
2.50000000 10.00000000 2.20000005 17 237 127
2.59999990 10.00000000 2.20000005 32 248 100
0.10000000 10.00000000 2.29999995 154 222 6
0.20000000 10.00000000 2.29999995 179 202 0
0.30000001 10.00000000 2.29999995 202 179 0
0.40000001 10.00000000 2.29999995 222 154 6
0.50000000 10.00000000 2.29999995 237 127 17
0.60000002 10.00000000 2.29999995 248 100 32
0.69999999 10.00000000 2.29999995 254 75 52
0.80000001 10.00000000 2.29999995 254 52 75
0.89999998 10.00000000 2.29999995 248 32 100
1.00000000 10.00000000 2.29999995 237 17 127
1.10000002 10.00000000 2.29999995 222 6 154
1.20000005 10.00000000 2.29999995 202 0 179
1.29999995 10.00000000 2.29999995 179 0 202
1.39999998 10.00000000 2.29999995 154 6 222
1.50000000 10.00000000 2.29999995 127 17 237
1.60000002 10.00000000 2.29999995 100 32 248
1.70000005 10.00000000 2.29999995 75 52 254
1.79999995 10.00000000 2.29999995 52 75 254
1.89999998 10.00000000 2.29999995 32 100 248
2.00000000 10.00000000 2.29999995 17 127 237
2.09999990 10.00000000 2.29999995 6 154 222
2.20000005 10.00000000 2.29999995 0 179 202
2.29999995 10.00000000 2.29999995 0 202 179
2.40000010 10.00000000 2.29999995 6 222 154
2.50000000 10.00000000 2.29999995 17 237 127
2.59999990 10.00000000 2.29999995 32 248 100
0.10000000 10.00000000 2.40000010 154 222 6
0.20000000 10.00000000 2.40000010 179 202 0
0.30000001 10.00000000 2.40000010 202 179 0
0.40000001 10.00000000 2.40000010 222 154 6
0.50000000 10.00000000 2.40000010 237 127 17
0.60000002 10.00000000 2.40000010 248 100 32
0.69999999 10.00000000 2.40000010 254 75 52
0.80000001 10.00000000 2.40000010 254 52 75
0.89999998 10.00000000 2.40000010 248 32 100
1.00000000 10.00000000 2.40000010 237 17 127
1.10000002 10.00000000 2.40000010 222 6 154
1.20000005 10.00000000 2.40000010 202 0 179
1.29999995 10.00000000 2.40000010 179 0 202
1.39999998 10.00000000 2.40000010 154 6 222
1.50000000 10.00000000 2.40000010 127 17 237
1.60000002 10.00000000 2.40000010 100 32 248
1.70000005 10.00000000 2.40000010 75 52 254
1.79999995 10.00000000 2.40000010 52 75 254
1.89999998 10.00000000 2.40000010 32 100 248
2.00000000 10.00000000 2.40000010 17 127 237
2.09999990 10.00000000 2.40000010 6 154 222
2.20000005 10.00000000 2.40000010 0 179 202
2.29999995 10.00000000 2.40000010 0 202 179
2.40000010 10.00000000 2.40000010 6 222 154
2.50000000 10.00000000 2.40000010 17 237 127
2.59999990 10.00000000 2.40000010 32 248 100
0.10000000 10.00000000 2.50000000 154 222 6
0.20000000 10.00000000 2.50000000 179 202 0
0.30000001 10.00000000 2.50000000 202 179 0
0.40000001 10.00000000 2.50000000 222 154 6
0.50000000 10.00000000 2.50000000 237 127 17
0.60000002 10.00000000 2.50000000 248 100 32
0.69999999 10.00000000 2.50000000 254 75 52
0.80000001 10.00000000 2.50000000 254 52 75
0.89999998 10.00000000 2.50000000 248 32 100
1.00000000 10.00000000 2.50000000 237 17 127
1.10000002 10.00000000 2.50000000 222 6 154
1.20000005 10.00000000 2.50000000 202 0 179
1.29999995 10.00000000 2.50000000 179 0 202
1.39999998 10.00000000 2.50000000 154 6 222
1.50000000 10.00000000 2.50000000 127 17 237
1.60000002 10.00000000 2.50000000 100 32 248
1.70000005 10.00000000 2.50000000 75 52 254
1.79999995 10.00000000 2.50000000 52 75 254
1.89999998 10.00000000 2.50000000 32 100 248
2.00000000 10.00000000 2.50000000 17 127 237
2.09999990 10.00000000 2.50000000 6 154 222
2.20000005 10.00000000 2.50000000 0 179 202
2.29999995 10.00000000 2.50000000 0 202 179
2.40000010 10.00000000 2.50000000 6 222 154
2.50000000 10.00000000 2.50000000 17 237 127
2.59999990 10.00000000 2.50000000 32 248 100
0.10000000 7.50000000 0.10000000 154 222 6
0.20000000 7.50000000 0.10000000 179 202 0
0.30000001 7.50000000 0.10000000 202 179 0
0.40000001 7.50000000 0.10000000 222 154 6
0.50000000 7.50000000 0.10000000 237 127 17
2.00000000 7.50000000 0.10000000 17 127 237
2.09999990 7.50000000 0.10000000 6 154 222
2.20000005 7.50000000 0.10000000 0 179 202
2.29999995 7.50000000 0.10000000 0 202 179
2.40000010 7.50000000 0.10000000 6 222 154
2.50000000 7.50000000 0.10000000 17 237 127
2.59999990 7.50000000 0.10000000 32 248 100
0.10000000 7.50000000 0.20000000 154 222 6
0.20000000 7.50000000 0.20000000 179 202 0
0.30000001 7.50000000 0.20000000 202 179 0
0.40000001 7.50000000 0.20000000 222 154 6
0.50000000 7.50000000 0.20000000 237 127 17
2.00000000 7.50000000 0.20000000 17 127 237
2.09999990 7.50000000 0.20000000 6 154 222
2.20000005 7.50000000 0.20000000 0 179 202
2.29999995 7.50000000 0.20000000 0 202 179
2.40000010 7.50000000 0.20000000 6 222 154
2.50000000 7.50000000 0.20000000 17 237 127
2.59999990 7.50000000 0.20000000 32 248 100
0.10000000 7.50000000 0.30000001 154 222 6
0.20000000 7.50000000 0.30000001 179 202 0
0.30000001 7.50000000 0.30000001 202 179 0
0.40000001 7.50000000 0.30000001 222 154 6
0.50000000 7.50000000 0.30000001 237 127 17
2.00000000 7.50000000 0.30000001 17 127 237
2.09999990 7.50000000 0.30000001 6 154 222
2.20000005 7.50000000 0.30000001 0 179 202
2.29999995 7.50000000 0.30000001 0 202 179
2.40000010 7.50000000 0.30000001 6 222 154
2.50000000 7.50000000 0.30000001 17 237 127
2.59999990 7.50000000 0.30000001 32 248 100
0.10000000 7.50000000 0.40000001 154 222 6
0.20000000 7.50000000 0.40000001 179 202 0
0.30000001 7.50000000 0.40000001 202 179 0
0.40000001 7.50000000 0.40000001 222 154 6
0.50000000 7.50000000 0.40000001 237 127 17
2.00000000 7.50000000 0.40000001 17 127 237
2.09999990 7.50000000 0.40000001 6 154 222
2.20000005 7.50000000 0.40000001 0 179 202
2.29999995 7.50000000 0.40000001 0 202 179
2.40000010 7.50000000 0.40000001 6 222 154
2.50000000 7.50000000 0.40000001 17 237 127
2.59999990 7.50000000 0.40000001 32 248 100
0.10000000 7.50000000 0.50000000 154 222 6
0.20000000 7.50000000 0.50000000 179 202 0
0.30000001 7.50000000 0.50000000 202 179 0
0.40000001 7.50000000 0.50000000 222 154 6
0.50000000 7.50000000 0.50000000 237 127 17
2.00000000 7.50000000 0.50000000 17 127 237
2.09999990 7.50000000 0.50000000 6 154 222
2.20000005 7.50000000 0.50000000 0 179 202
2.29999995 7.50000000 0.50000000 0 202 179
2.40000010 7.50000000 0.50000000 6 222 154
2.50000000 7.50000000 0.50000000 17 237 127
2.59999990 7.50000000 0.50000000 32 248 100
0.10000000 7.50000000 0.60000002 154 222 6
0.20000000 7.50000000 0.60000002 179 202 0
0.30000001 7.50000000 0.60000002 202 179 0
0.40000001 7.50000000 0.60000002 222 154 6
0.50000000 7.50000000 0.60000002 237 127 17
2.00000000 7.50000000 0.60000002 17 127 237
2.09999990 7.50000000 0.60000002 6 154 222
2.20000005 7.50000000 0.60000002 0 179 202
2.29999995 7.50000000 0.60000002 0 202 179
2.40000010 7.50000000 0.60000002 6 222 154
2.50000000 7.50000000 0.60000002 17 237 127
2.59999990 7.50000000 0.60000002 32 248 100
0.10000000 7.50000000 0.69999999 154 222 6
0.20000000 7.50000000 0.69999999 179 202 0
0.30000001 7.50000000 0.69999999 202 179 0
0.40000001 7.50000000 0.69999999 222 154 6
0.50000000 7.50000000 0.69999999 237 127 17
2.00000000 7.50000000 0.69999999 17 127 237
2.09999990 7.50000000 0.69999999 6 154 222
2.20000005 7.50000000 0.69999999 0 179 202
2.29999995 7.50000000 0.69999999 0 202 179
2.40000010 7.50000000 0.69999999 6 222 154
2.50000000 7.50000000 0.69999999 17 237 127
2.59999990 7.50000000 0.69999999 32 248 100
0.10000000 7.50000000 0.80000001 154 222 6
0.20000000 7.50000000 0.80000001 179 202 0
0.30000001 7.50000000 0.80000001 202 179 0
0.40000001 7.50000000 0.80000001 222 154 6
0.50000000 7.50000000 0.80000001 237 127 17
2.00000000 7.50000000 0.80000001 17 127 237
2.09999990 7.50000000 0.80000001 6 154 222
2.20000005 7.50000000 0.80000001 0 179 202
2.29999995 7.50000000 0.80000001 0 202 179
2.40000010 7.50000000 0.80000001 6 222 154
2.50000000 7.50000000 0.80000001 17 237 127
2.59999990 7.50000000 0.80000001 32 248 100
0.10000000 7.50000000 0.89999998 154 222 6
0.20000000 7.50000000 0.89999998 179 202 0
0.30000001 7.50000000 0.89999998 202 179 0
0.40000001 7.50000000 0.89999998 222 154 6
0.50000000 7.50000000 0.89999998 237 127 17
2.00000000 7.50000000 0.89999998 17 127 237
2.09999990 7.50000000 0.89999998 6 154 222
2.20000005 7.50000000 0.89999998 0 179 202
2.29999995 7.50000000 0.89999998 0 202 179
2.40000010 7.50000000 0.89999998 6 222 154
2.50000000 7.50000000 0.89999998 17 237 127
2.59999990 7.50000000 0.89999998 32 248 100
0.10000000 7.50000000 1.00000000 154 222 6
0.20000000 7.50000000 1.00000000 179 202 0
0.30000001 7.50000000 1.00000000 202 179 0
0.40000001 7.50000000 1.00000000 222 154 6
0.50000000 7.50000000 1.00000000 237 127 17
2.00000000 7.50000000 1.00000000 17 127 237
2.09999990 7.50000000 1.00000000 6 154 222
2.20000005 7.50000000 1.00000000 0 179 202
2.29999995 7.50000000 1.00000000 0 202 179
2.40000010 7.50000000 1.00000000 6 222 154
2.50000000 7.50000000 1.00000000 17 237 127
2.59999990 7.50000000 1.00000000 32 248 100
0.10000000 7.50000000 1.10000002 154 222 6
0.20000000 7.50000000 1.10000002 179 202 0
0.30000001 7.50000000 1.10000002 202 179 0
0.40000001 7.50000000 1.10000002 222 154 6
0.50000000 7.50000000 1.10000002 237 127 17
2.00000000 7.50000000 1.10000002 17 127 237
2.09999990 7.50000000 1.10000002 6 154 222
2.20000005 7.50000000 1.10000002 0 179 202
2.29999995 7.50000000 1.10000002 0 202 179
2.40000010 7.50000000 1.10000002 6 222 154
2.50000000 7.50000000 1.10000002 17 237 127
2.59999990 7.50000000 1.10000002 32 248 100
0.10000000 7.50000000 1.20000005 154 222 6
0.20000000 7.50000000 1.20000005 179 202 0
0.30000001 7.50000000 1.20000005 202 179 0
0.40000001 7.50000000 1.20000005 222 154 6
0.50000000 7.50000000 1.20000005 237 127 17
2.00000000 7.50000000 1.20000005 17 127 237
2.09999990 7.50000000 1.20000005 6 154 222
2.20000005 7.50000000 1.20000005 0 179 202
2.29999995 7.50000000 1.20000005 0 202 179
2.40000010 7.50000000 1.20000005 6 222 154
2.50000000 7.50000000 1.20000005 17 237 127
2.59999990 7.50000000 1.20000005 32 248 100
0.10000000 7.50000000 1.29999995 154 222 6
0.20000000 7.50000000 1.29999995 179 202 0
0.30000001 7.50000000 1.29999995 202 179 0
0.40000001 7.50000000 1.29999995 222 154 6
0.50000000 7.50000000 1.29999995 237 127 17
2.00000000 7.50000000 1.29999995 17 127 237
2.09999990 7.50000000 1.29999995 6 154 222
2.20000005 7.50000000 1.29999995 0 179 202
2.29999995 7.50000000 1.29999995 0 202 179
2.40000010 7.50000000 1.29999995 6 222 154
2.50000000 7.50000000 1.29999995 17 237 127
2.59999990 7.50000000 1.29999995 32 248 100
0.10000000 7.50000000 1.39999998 154 222 6
0.20000000 7.50000000 1.39999998 179 202 0
0.30000001 7.50000000 1.39999998 202 179 0
0.40000001 7.50000000 1.39999998 222 154 6
0.50000000 7.50000000 1.39999998 237 127 17
2.00000000 7.50000000 1.39999998 17 127 237
2.09999990 7.50000000 1.39999998 6 154 222
2.20000005 7.50000000 1.39999998 0 179 202
2.29999995 7.50000000 1.39999998 0 202 179
2.40000010 7.50000000 1.39999998 6 222 154
2.50000000 7.50000000 1.39999998 17 237 127
2.59999990 7.50000000 1.39999998 32 248 100
0.10000000 7.50000000 1.50000000 154 222 6
0.20000000 7.50000000 1.50000000 179 202 0
0.30000001 7.50000000 1.50000000 202 179 0
0.40000001 7.50000000 1.50000000 222 154 6
0.50000000 7.50000000 1.50000000 237 127 17
2.00000000 7.50000000 1.50000000 17 127 237
2.09999990 7.50000000 1.50000000 6 154 222
2.20000005 7.50000000 1.50000000 0 179 202
2.29999995 7.50000000 1.50000000 0 202 179
2.40000010 7.50000000 1.50000000 6 222 154
2.50000000 7.50000000 1.50000000 17 237 127
2.59999990 7.50000000 1.50000000 32 248 100
0.10000000 7.50000000 1.60000002 154 222 6
0.20000000 7.50000000 1.60000002 179 202 0
0.30000001 7.50000000 1.60000002 202 179 0
0.40000001 7.50000000 1.60000002 222 154 6
0.50000000 7.50000000 1.60000002 237 127 17
2.00000000 7.50000000 1.60000002 17 127 237
2.09999990 7.50000000 1.60000002 6 154 222
2.20000005 7.50000000 1.60000002 0 179 202
2.29999995 7.50000000 1.60000002 0 202 179
2.40000010 7.50000000 1.60000002 6 222 154
2.50000000 7.50000000 1.60000002 17 237 127
2.59999990 7.50000000 1.60000002 32 248 100
0.10000000 7.50000000 1.70000005 154 222 6
0.20000000 7.50000000 1.70000005 179 202 0
0.30000001 7.50000000 1.70000005 202 179 0
0.40000001 7.50000000 1.70000005 222 154 6
0.50000000 7.50000000 1.70000005 237 127 17
2.00000000 7.50000000 1.70000005 17 127 237
2.09999990 7.50000000 1.70000005 6 154 222
2.20000005 7.50000000 1.70000005 0 179 202
2.29999995 7.50000000 1.70000005 0 202 179
2.40000010 7.50000000 1.70000005 6 222 154
2.50000000 7.50000000 1.70000005 17 237 127
2.59999990 7.50000000 1.70000005 32 248 100
0.10000000 7.50000000 1.79999995 154 222 6
0.20000000 7.50000000 1.79999995 179 202 0
0.30000001 7.50000000 1.79999995 202 179 0
0.40000001 7.50000000 1.79999995 222 154 6
0.50000000 7.50000000 1.79999995 237 127 17
2.00000000 7.50000000 1.79999995 17 127 237
2.09999990 7.50000000 1.79999995 6 154 222
2.20000005 7.50000000 1.79999995 0 179 202
2.29999995 7.50000000 1.79999995 0 202 179
2.40000010 7.50000000 1.79999995 6 222 154
2.50000000 7.50000000 1.79999995 17 237 127
2.59999990 7.50000000 1.79999995 32 248 100
0.10000000 7.50000000 1.89999998 154 222 6
0.20000000 7.50000000 1.89999998 179 202 0
0.30000001 7.50000000 1.89999998 202 179 0
0.40000001 7.50000000 1.89999998 222 154 6
0.50000000 7.50000000 1.89999998 237 127 17
2.00000000 7.50000000 1.89999998 17 127 237
2.09999990 7.50000000 1.89999998 6 154 222
2.20000005 7.50000000 1.89999998 0 179 202
2.29999995 7.50000000 1.89999998 0 202 179
2.40000010 7.50000000 1.89999998 6 222 154
2.50000000 7.50000000 1.89999998 17 237 127
2.59999990 7.50000000 1.89999998 32 248 100
0.10000000 7.50000000 2.00000000 154 222 6
0.20000000 7.50000000 2.00000000 179 202 0
0.30000001 7.50000000 2.00000000 202 179 0
0.40000001 7.50000000 2.00000000 222 154 6
0.50000000 7.50000000 2.00000000 237 127 17
2.00000000 7.50000000 2.00000000 17 127 237
2.09999990 7.50000000 2.00000000 6 154 222
2.20000005 7.50000000 2.00000000 0 179 202
2.29999995 7.50000000 2.00000000 0 202 179
2.40000010 7.50000000 2.00000000 6 222 154
2.50000000 7.50000000 2.00000000 17 237 127
2.59999990 7.50000000 2.00000000 32 248 100
0.10000000 7.50000000 2.09999990 154 222 6
0.20000000 7.50000000 2.09999990 179 202 0
0.30000001 7.50000000 2.09999990 202 179 0
0.40000001 7.50000000 2.09999990 222 154 6
0.50000000 7.50000000 2.09999990 237 127 17
2.00000000 7.50000000 2.09999990 17 127 237
2.09999990 7.50000000 2.09999990 6 154 222
2.20000005 7.50000000 2.09999990 0 179 202
2.29999995 7.50000000 2.09999990 0 202 179
2.40000010 7.50000000 2.09999990 6 222 154
2.50000000 7.50000000 2.09999990 17 237 127
2.59999990 7.50000000 2.09999990 32 248 100
0.10000000 7.50000000 2.20000005 154 222 6
0.20000000 7.50000000 2.20000005 179 202 0
0.30000001 7.50000000 2.20000005 202 179 0
0.40000001 7.50000000 2.20000005 222 154 6
0.50000000 7.50000000 2.20000005 237 127 17
2.00000000 7.50000000 2.20000005 17 127 237
2.09999990 7.50000000 2.20000005 6 154 222
2.20000005 7.50000000 2.20000005 0 179 202
2.29999995 7.50000000 2.20000005 0 202 179
2.40000010 7.50000000 2.20000005 6 222 154
2.50000000 7.50000000 2.20000005 17 237 127
2.59999990 7.50000000 2.20000005 32 248 100
0.10000000 7.50000000 2.29999995 154 222 6
0.20000000 7.50000000 2.29999995 179 202 0
0.30000001 7.50000000 2.29999995 202 179 0
0.40000001 7.50000000 2.29999995 222 154 6
0.50000000 7.50000000 2.29999995 237 127 17
2.00000000 7.50000000 2.29999995 17 127 237
2.09999990 7.50000000 2.29999995 6 154 222
2.20000005 7.50000000 2.29999995 0 179 202
2.29999995 7.50000000 2.29999995 0 202 179
2.40000010 7.50000000 2.29999995 6 222 154
2.50000000 7.50000000 2.29999995 17 237 127
2.59999990 7.50000000 2.29999995 32 248 100
0.10000000 7.50000000 2.40000010 154 222 6
0.20000000 7.50000000 2.40000010 179 202 0
0.30000001 7.50000000 2.40000010 202 179 0
0.40000001 7.50000000 2.40000010 222 154 6
0.50000000 7.50000000 2.40000010 237 127 17
2.00000000 7.50000000 2.40000010 17 127 237
2.09999990 7.50000000 2.40000010 6 154 222
2.20000005 7.50000000 2.40000010 0 179 202
2.29999995 7.50000000 2.40000010 0 202 179
2.40000010 7.50000000 2.40000010 6 222 154
2.50000000 7.50000000 2.40000010 17 237 127
2.59999990 7.50000000 2.40000010 32 248 100
0.10000000 7.50000000 2.50000000 154 222 6
0.20000000 7.50000000 2.50000000 179 202 0
0.30000001 7.50000000 2.50000000 202 179 0
0.40000001 7.50000000 2.50000000 222 154 6
0.50000000 7.50000000 2.50000000 237 127 17
2.00000000 7.50000000 2.50000000 17 127 237
2.09999990 7.50000000 2.50000000 6 154 222
2.20000005 7.50000000 2.50000000 0 179 202
2.29999995 7.50000000 2.50000000 0 202 179
2.40000010 7.50000000 2.50000000 6 222 154
2.50000000 7.50000000 2.50000000 17 237 127
2.59999990 7.50000000 2.50000000 32 248 100
0.10000000 7.50000000 2.50000000 154 222 6
0.10000000 7.59999990 2.50000000 154 222 6
0.10000000 7.69999981 2.50000000 154 222 6
0.10000000 7.80000019 2.50000000 154 222 6
0.10000000 7.90000010 2.50000000 154 222 6
0.10000000 8.00000000 2.50000000 154 222 6
0.10000000 8.10000038 2.50000000 154 222 6
0.10000000 8.19999981 2.50000000 154 222 6
0.10000000 8.30000019 2.50000000 154 222 6
0.10000000 8.39999962 2.50000000 154 222 6
0.10000000 8.50000000 2.50000000 154 222 6
0.10000000 8.60000038 2.50000000 154 222 6
0.10000000 8.69999981 2.50000000 154 222 6
0.10000000 8.80000019 2.50000000 154 222 6
0.10000000 8.89999962 2.50000000 154 222 6
0.10000000 9.00000000 2.50000000 154 222 6
0.10000000 9.10000038 2.50000000 154 222 6
0.10000000 9.19999981 2.50000000 154 222 6
0.10000000 9.30000019 2.50000000 154 222 6
0.10000000 9.39999962 2.50000000 154 222 6
0.10000000 9.50000000 2.50000000 154 222 6
0.10000000 9.60000038 2.50000000 154 222 6
0.10000000 9.69999981 2.50000000 154 222 6
0.10000000 9.80000019 2.50000000 154 222 6
0.10000000 9.89999962 2.50000000 154 222 6
0.10000000 10.00000000 2.50000000 154 222 6
0.20000000 7.50000000 2.50000000 179 202 0
0.20000000 7.59999990 2.50000000 179 202 0
0.20000000 7.69999981 2.50000000 179 202 0
0.20000000 7.80000019 2.50000000 179 202 0
0.20000000 7.90000010 2.50000000 179 202 0
0.20000000 8.00000000 2.50000000 179 202 0
0.20000000 8.10000038 2.50000000 179 202 0
0.20000000 8.19999981 2.50000000 179 202 0
0.20000000 8.30000019 2.50000000 179 202 0
0.20000000 8.39999962 2.50000000 179 202 0
0.20000000 8.50000000 2.50000000 179 202 0
0.20000000 8.60000038 2.50000000 179 202 0
0.20000000 8.69999981 2.50000000 179 202 0
0.20000000 8.80000019 2.50000000 179 202 0
0.20000000 8.89999962 2.50000000 179 202 0
0.20000000 9.00000000 2.50000000 179 202 0
0.20000000 9.10000038 2.50000000 179 202 0
0.20000000 9.19999981 2.50000000 179 202 0
0.20000000 9.30000019 2.50000000 179 202 0
0.20000000 9.39999962 2.50000000 179 202 0
0.20000000 9.50000000 2.50000000 179 202 0
0.20000000 9.60000038 2.50000000 179 202 0
0.20000000 9.69999981 2.50000000 179 202 0
0.20000000 9.80000019 2.50000000 179 202 0
0.20000000 9.89999962 2.50000000 179 202 0
0.20000000 10.00000000 2.50000000 179 202 0
0.30000001 7.50000000 2.50000000 202 179 0
0.30000001 7.59999990 2.50000000 202 179 0
0.30000001 7.69999981 2.50000000 202 179 0
0.30000001 7.80000019 2.50000000 202 179 0
0.30000001 7.90000010 2.50000000 202 179 0
0.30000001 8.00000000 2.50000000 202 179 0
0.30000001 8.10000038 2.50000000 202 179 0
0.30000001 8.19999981 2.50000000 202 179 0
0.30000001 8.30000019 2.50000000 202 179 0
0.30000001 8.39999962 2.50000000 202 179 0
0.30000001 8.50000000 2.50000000 202 179 0
0.30000001 8.60000038 2.50000000 202 179 0
0.30000001 8.69999981 2.50000000 202 179 0
0.30000001 8.80000019 2.50000000 202 179 0
0.30000001 8.89999962 2.50000000 202 179 0
0.30000001 9.00000000 2.50000000 202 179 0
0.30000001 9.10000038 2.50000000 202 179 0
0.30000001 9.19999981 2.50000000 202 179 0
0.30000001 9.30000019 2.50000000 202 179 0
0.30000001 9.39999962 2.50000000 202 179 0
0.30000001 9.50000000 2.50000000 202 179 0
0.30000001 9.60000038 2.50000000 202 179 0
0.30000001 9.69999981 2.50000000 202 179 0
0.30000001 9.80000019 2.50000000 202 179 0
0.30000001 9.89999962 2.50000000 202 179 0
0.30000001 10.00000000 2.50000000 202 179 0
0.40000001 7.50000000 2.50000000 222 154 6
0.40000001 7.59999990 2.50000000 222 154 6
0.40000001 7.69999981 2.50000000 222 154 6
0.40000001 7.80000019 2.50000000 222 154 6
0.40000001 7.90000010 2.50000000 222 154 6
0.40000001 8.00000000 2.50000000 222 154 6
0.40000001 8.10000038 2.50000000 222 154 6
0.40000001 8.19999981 2.50000000 222 154 6
0.40000001 8.30000019 2.50000000 222 154 6
0.40000001 8.39999962 2.50000000 222 154 6
0.40000001 8.50000000 2.50000000 222 154 6
0.40000001 8.60000038 2.50000000 222 154 6
0.40000001 8.69999981 2.50000000 222 154 6
0.40000001 8.80000019 2.50000000 222 154 6
0.40000001 8.89999962 2.50000000 222 154 6
0.40000001 9.00000000 2.50000000 222 154 6
0.40000001 9.10000038 2.50000000 222 154 6
0.40000001 9.19999981 2.50000000 222 154 6
0.40000001 9.30000019 2.50000000 222 154 6
0.40000001 9.39999962 2.50000000 222 154 6
0.40000001 9.50000000 2.50000000 222 154 6
0.40000001 9.60000038 2.50000000 222 154 6
0.40000001 9.69999981 2.50000000 222 154 6
0.40000001 9.80000019 2.50000000 222 154 6
0.40000001 9.89999962 2.50000000 222 154 6
0.40000001 10.00000000 2.50000000 222 154 6
0.50000000 7.50000000 2.50000000 237 127 17
0.50000000 7.59999990 2.50000000 237 127 17
0.50000000 7.69999981 2.50000000 237 127 17
0.50000000 7.80000019 2.50000000 237 127 17
0.50000000 7.90000010 2.50000000 237 127 17
0.50000000 8.00000000 2.50000000 237 127 17
0.50000000 8.10000038 2.50000000 237 127 17
0.50000000 8.19999981 2.50000000 237 127 17
0.50000000 8.30000019 2.50000000 237 127 17
0.50000000 8.39999962 2.50000000 237 127 17
0.50000000 8.50000000 2.50000000 237 127 17
0.50000000 8.60000038 2.50000000 237 127 17
0.50000000 8.69999981 2.50000000 237 127 17
0.50000000 8.80000019 2.50000000 237 127 17
0.50000000 8.89999962 2.50000000 237 127 17
0.50000000 9.00000000 2.50000000 237 127 17
0.50000000 9.10000038 2.50000000 237 127 17
0.50000000 9.19999981 2.50000000 237 127 17
0.50000000 9.30000019 2.50000000 237 127 17
0.50000000 9.39999962 2.50000000 237 127 17
0.50000000 9.50000000 2.50000000 237 127 17
0.50000000 9.60000038 2.50000000 237 127 17
0.50000000 9.69999981 2.50000000 237 127 17
0.50000000 9.80000019 2.50000000 237 127 17
0.50000000 9.89999962 2.50000000 237 127 17
0.50000000 10.00000000 2.50000000 237 127 17
0.60000002 8.50000000 2.50000000 248 100 32
0.60000002 8.60000038 2.50000000 248 100 32
0.60000002 8.69999981 2.50000000 248 100 32
0.60000002 8.80000019 2.50000000 248 100 32
0.60000002 8.89999962 2.50000000 248 100 32
0.60000002 9.00000000 2.50000000 248 100 32
0.60000002 9.10000038 2.50000000 248 100 32
0.60000002 9.19999981 2.50000000 248 100 32
0.60000002 9.30000019 2.50000000 248 100 32
0.60000002 9.39999962 2.50000000 248 100 32
0.60000002 9.50000000 2.50000000 248 100 32
0.60000002 9.60000038 2.50000000 248 100 32
0.60000002 9.69999981 2.50000000 248 100 32
0.60000002 9.80000019 2.50000000 248 100 32
0.60000002 9.89999962 2.50000000 248 100 32
0.60000002 10.00000000 2.50000000 248 100 32
0.69999999 8.50000000 2.50000000 254 75 52
0.69999999 8.60000038 2.50000000 254 75 52
0.69999999 8.69999981 2.50000000 254 75 52
0.69999999 8.80000019 2.50000000 254 75 52
0.69999999 8.89999962 2.50000000 254 75 52
0.69999999 9.00000000 2.50000000 254 75 52
0.69999999 9.10000038 2.50000000 254 75 52
0.69999999 9.19999981 2.50000000 254 75 52
0.69999999 9.30000019 2.50000000 254 75 52
0.69999999 9.39999962 2.50000000 254 75 52
0.69999999 9.50000000 2.50000000 254 75 52
0.69999999 9.60000038 2.50000000 254 75 52
0.69999999 9.69999981 2.50000000 254 75 52
0.69999999 9.80000019 2.50000000 254 75 52
0.69999999 9.89999962 2.50000000 254 75 52
0.69999999 10.00000000 2.50000000 254 75 52
0.80000001 8.50000000 2.50000000 254 52 75
0.80000001 8.60000038 2.50000000 254 52 75
0.80000001 8.69999981 2.50000000 254 52 75
0.80000001 8.80000019 2.50000000 254 52 75
0.80000001 8.89999962 2.50000000 254 52 75
0.80000001 9.00000000 2.50000000 254 52 75
0.80000001 9.10000038 2.50000000 254 52 75
0.80000001 9.19999981 2.50000000 254 52 75
0.80000001 9.30000019 2.50000000 254 52 75
0.80000001 9.39999962 2.50000000 254 52 75
0.80000001 9.50000000 2.50000000 254 52 75
0.80000001 9.60000038 2.50000000 254 52 75
0.80000001 9.69999981 2.50000000 254 52 75
0.80000001 9.80000019 2.50000000 254 52 75
0.80000001 9.89999962 2.50000000 254 52 75
0.80000001 10.00000000 2.50000000 254 52 75
0.89999998 8.50000000 2.50000000 248 32 100
0.89999998 8.60000038 2.50000000 248 32 100
0.89999998 8.69999981 2.50000000 248 32 100
0.89999998 8.80000019 2.50000000 248 32 100
0.89999998 8.89999962 2.50000000 248 32 100
0.89999998 9.00000000 2.50000000 248 32 100
0.89999998 9.10000038 2.50000000 248 32 100
0.89999998 9.19999981 2.50000000 248 32 100
0.89999998 9.30000019 2.50000000 248 32 100
0.89999998 9.39999962 2.50000000 248 32 100
0.89999998 9.50000000 2.50000000 248 32 100
0.89999998 9.60000038 2.50000000 248 32 100
0.89999998 9.69999981 2.50000000 248 32 100
0.89999998 9.80000019 2.50000000 248 32 100
0.89999998 9.89999962 2.50000000 248 32 100
0.89999998 10.00000000 2.50000000 248 32 100
1.00000000 8.50000000 2.50000000 237 17 127
1.00000000 8.60000038 2.50000000 237 17 127
1.00000000 8.69999981 2.50000000 237 17 127
1.00000000 8.80000019 2.50000000 237 17 127
1.00000000 8.89999962 2.50000000 237 17 127
1.00000000 9.00000000 2.50000000 237 17 127
1.00000000 9.10000038 2.50000000 237 17 127
1.00000000 9.19999981 2.50000000 237 17 127
1.00000000 9.30000019 2.50000000 237 17 127
1.00000000 9.39999962 2.50000000 237 17 127
1.00000000 9.50000000 2.50000000 237 17 127
1.00000000 9.60000038 2.50000000 237 17 127
1.00000000 9.69999981 2.50000000 237 17 127
1.00000000 9.80000019 2.50000000 237 17 127
1.00000000 9.89999962 2.50000000 237 17 127
1.00000000 10.00000000 2.50000000 237 17 127
1.10000002 8.50000000 2.50000000 222 6 154
1.10000002 8.60000038 2.50000000 222 6 154
1.10000002 8.69999981 2.50000000 222 6 154
1.10000002 8.80000019 2.50000000 222 6 154
1.10000002 8.89999962 2.50000000 222 6 154
1.10000002 9.00000000 2.50000000 222 6 154
1.10000002 9.10000038 2.50000000 222 6 154
1.10000002 9.19999981 2.50000000 222 6 154
1.10000002 9.30000019 2.50000000 222 6 154
1.10000002 9.39999962 2.50000000 222 6 154
1.10000002 9.50000000 2.50000000 222 6 154
1.10000002 9.60000038 2.50000000 222 6 154
1.10000002 9.69999981 2.50000000 222 6 154
1.10000002 9.80000019 2.50000000 222 6 154
1.10000002 9.89999962 2.50000000 222 6 154
1.10000002 10.00000000 2.50000000 222 6 154
1.20000005 8.50000000 2.50000000 202 0 179
1.20000005 8.60000038 2.50000000 202 0 179
1.20000005 8.69999981 2.50000000 202 0 179
1.20000005 8.80000019 2.50000000 202 0 179
1.20000005 8.89999962 2.50000000 202 0 179
1.20000005 9.00000000 2.50000000 202 0 179
1.20000005 9.10000038 2.50000000 202 0 179
1.20000005 9.19999981 2.50000000 202 0 179
1.20000005 9.30000019 2.50000000 202 0 179
1.20000005 9.39999962 2.50000000 202 0 179
1.20000005 9.50000000 2.50000000 202 0 179
1.20000005 9.60000038 2.50000000 202 0 179
1.20000005 9.69999981 2.50000000 202 0 179
1.20000005 9.80000019 2.50000000 202 0 179
1.20000005 9.89999962 2.50000000 202 0 179
1.20000005 10.00000000 2.50000000 202 0 179
1.29999995 8.50000000 2.50000000 179 0 202
1.29999995 8.60000038 2.50000000 179 0 202
1.29999995 8.69999981 2.50000000 179 0 202
1.29999995 8.80000019 2.50000000 179 0 202
1.29999995 8.89999962 2.50000000 179 0 202
1.29999995 9.00000000 2.50000000 179 0 202
1.29999995 9.10000038 2.50000000 179 0 202
1.29999995 9.19999981 2.50000000 179 0 202
1.29999995 9.30000019 2.50000000 179 0 202
1.29999995 9.39999962 2.50000000 179 0 202
1.29999995 9.50000000 2.50000000 179 0 202
1.29999995 9.60000038 2.50000000 179 0 202
1.29999995 9.69999981 2.50000000 179 0 202
1.29999995 9.80000019 2.50000000 179 0 202
1.29999995 9.89999962 2.50000000 179 0 202
1.29999995 10.00000000 2.50000000 179 0 202
1.39999998 8.50000000 2.50000000 154 6 222
1.39999998 8.60000038 2.50000000 154 6 222
1.39999998 8.69999981 2.50000000 154 6 222
1.39999998 8.80000019 2.50000000 154 6 222
1.39999998 8.89999962 2.50000000 154 6 222
1.39999998 9.00000000 2.50000000 154 6 222
1.39999998 9.10000038 2.50000000 154 6 222
1.39999998 9.19999981 2.50000000 154 6 222
1.39999998 9.30000019 2.50000000 154 6 222
1.39999998 9.39999962 2.50000000 154 6 222
1.39999998 9.50000000 2.50000000 154 6 222
1.39999998 9.60000038 2.50000000 154 6 222
1.39999998 9.69999981 2.50000000 154 6 222
1.39999998 9.80000019 2.50000000 154 6 222
1.39999998 9.89999962 2.50000000 154 6 222
1.39999998 10.00000000 2.50000000 154 6 222
1.50000000 8.50000000 2.50000000 127 17 237
1.50000000 8.60000038 2.50000000 127 17 237
1.50000000 8.69999981 2.50000000 127 17 237
1.50000000 8.80000019 2.50000000 127 17 237
1.50000000 8.89999962 2.50000000 127 17 237
1.50000000 9.00000000 2.50000000 127 17 237
1.50000000 9.10000038 2.50000000 127 17 237
1.50000000 9.19999981 2.50000000 127 17 237
1.50000000 9.30000019 2.50000000 127 17 237
1.50000000 9.39999962 2.50000000 127 17 237
1.50000000 9.50000000 2.50000000 127 17 237
1.50000000 9.60000038 2.50000000 127 17 237
1.50000000 9.69999981 2.50000000 127 17 237
1.50000000 9.80000019 2.50000000 127 17 237
1.50000000 9.89999962 2.50000000 127 17 237
1.50000000 10.00000000 2.50000000 127 17 237
1.60000002 8.50000000 2.50000000 100 32 248
1.60000002 8.60000038 2.50000000 100 32 248
1.60000002 8.69999981 2.50000000 100 32 248
1.60000002 8.80000019 2.50000000 100 32 248
1.60000002 8.89999962 2.50000000 100 32 248
1.60000002 9.00000000 2.50000000 100 32 248
1.60000002 9.10000038 2.50000000 100 32 248
1.60000002 9.19999981 2.50000000 100 32 248
1.60000002 9.30000019 2.50000000 100 32 248
1.60000002 9.39999962 2.50000000 100 32 248
1.60000002 9.50000000 2.50000000 100 32 248
1.60000002 9.60000038 2.50000000 100 32 248
1.60000002 9.69999981 2.50000000 100 32 248
1.60000002 9.80000019 2.50000000 100 32 248
1.60000002 9.89999962 2.50000000 100 32 248
1.60000002 10.00000000 2.50000000 100 32 248
1.70000005 8.00000000 2.50000000 75 52 254
1.70000005 8.10000038 2.50000000 75 52 254
1.70000005 8.19999981 2.50000000 75 52 254
1.70000005 8.30000019 2.50000000 75 52 254
1.70000005 8.39999962 2.50000000 75 52 254
1.70000005 8.50000000 2.50000000 75 52 254
1.70000005 8.60000038 2.50000000 75 52 254
1.70000005 8.69999981 2.50000000 75 52 254
1.70000005 8.80000019 2.50000000 75 52 254
1.70000005 8.89999962 2.50000000 75 52 254
1.70000005 9.00000000 2.50000000 75 52 254
1.70000005 9.10000038 2.50000000 75 52 254
1.70000005 9.19999981 2.50000000 75 52 254
1.70000005 9.30000019 2.50000000 75 52 254
1.70000005 9.39999962 2.50000000 75 52 254
1.70000005 9.50000000 2.50000000 75 52 254
1.70000005 9.60000038 2.50000000 75 52 254
1.70000005 9.69999981 2.50000000 75 52 254
1.70000005 9.80000019 2.50000000 75 52 254
1.70000005 9.89999962 2.50000000 75 52 254
1.70000005 10.00000000 2.50000000 75 52 254
1.79999995 8.00000000 2.50000000 52 75 254
1.79999995 8.10000038 2.50000000 52 75 254
1.79999995 8.19999981 2.50000000 52 75 254
1.79999995 8.30000019 2.50000000 52 75 254
1.79999995 8.39999962 2.50000000 52 75 254
1.79999995 8.50000000 2.50000000 52 75 254
1.79999995 8.60000038 2.50000000 52 75 254
1.79999995 8.69999981 2.50000000 52 75 254
1.79999995 8.80000019 2.50000000 52 75 254
1.79999995 8.89999962 2.50000000 52 75 254
1.79999995 9.00000000 2.50000000 52 75 254
1.79999995 9.10000038 2.50000000 52 75 254
1.79999995 9.19999981 2.50000000 52 75 254
1.79999995 9.30000019 2.50000000 52 75 254
1.79999995 9.39999962 2.50000000 52 75 254
1.79999995 9.50000000 2.50000000 52 75 254
1.79999995 9.60000038 2.50000000 52 75 254
1.79999995 9.69999981 2.50000000 52 75 254
1.79999995 9.80000019 2.50000000 52 75 254
1.79999995 9.89999962 2.50000000 52 75 254
1.79999995 10.00000000 2.50000000 52 75 254
1.89999998 8.00000000 2.50000000 32 100 248
1.89999998 8.10000038 2.50000000 32 100 248
1.89999998 8.19999981 2.50000000 32 100 248
1.89999998 8.30000019 2.50000000 32 100 248
1.89999998 8.39999962 2.50000000 32 100 248
1.89999998 8.50000000 2.50000000 32 100 248
1.89999998 8.60000038 2.50000000 32 100 248
1.89999998 8.69999981 2.50000000 32 100 248
1.89999998 8.80000019 2.50000000 32 100 248
1.89999998 8.89999962 2.50000000 32 100 248
1.89999998 9.00000000 2.50000000 32 100 248
1.89999998 9.10000038 2.50000000 32 100 248
1.89999998 9.19999981 2.50000000 32 100 248
1.89999998 9.30000019 2.50000000 32 100 248
1.89999998 9.39999962 2.50000000 32 100 248
1.89999998 9.50000000 2.50000000 32 100 248
1.89999998 9.60000038 2.50000000 32 100 248
1.89999998 9.69999981 2.50000000 32 100 248
1.89999998 9.80000019 2.50000000 32 100 248
1.89999998 9.89999962 2.50000000 32 100 248
1.89999998 10.00000000 2.50000000 32 100 248
2.00000000 7.50000000 2.50000000 17 127 237
2.00000000 7.59999990 2.50000000 17 127 237
2.00000000 7.69999981 2.50000000 17 127 237
2.00000000 7.80000019 2.50000000 17 127 237
2.00000000 7.90000010 2.50000000 17 127 237
2.00000000 8.00000000 2.50000000 17 127 237
2.00000000 8.10000038 2.50000000 17 127 237
2.00000000 8.19999981 2.50000000 17 127 237
2.00000000 8.30000019 2.50000000 17 127 237
2.00000000 8.39999962 2.50000000 17 127 237
2.00000000 8.50000000 2.50000000 17 127 237
2.00000000 8.60000038 2.50000000 17 127 237
2.00000000 8.69999981 2.50000000 17 127 237
2.00000000 8.80000019 2.50000000 17 127 237
2.00000000 8.89999962 2.50000000 17 127 237
2.00000000 9.00000000 2.50000000 17 127 237
2.00000000 9.10000038 2.50000000 17 127 237
2.00000000 9.19999981 2.50000000 17 127 237
2.00000000 9.30000019 2.50000000 17 127 237
2.00000000 9.39999962 2.50000000 17 127 237
2.00000000 9.50000000 2.50000000 17 127 237
2.00000000 9.60000038 2.50000000 17 127 237
2.00000000 9.69999981 2.50000000 17 127 237
2.00000000 9.80000019 2.50000000 17 127 237
2.00000000 9.89999962 2.50000000 17 127 237
2.00000000 10.00000000 2.50000000 17 127 237
2.09999990 7.50000000 2.50000000 6 154 222
2.09999990 7.59999990 2.50000000 6 154 222
2.09999990 7.69999981 2.50000000 6 154 222
2.09999990 7.80000019 2.50000000 6 154 222
